# .PCD v0.7 - Point Cloud Data file format
VERSION 0.7
FIELDS x y z
SIZE 4 4 4
TYPE F F F
COUNT 1 1 1
WIDTH 1485
HEIGHT 1
VIEWPOINT 0 0 0 1 0 0 0
POINTS 1485
DATA ascii
4.8556786 -1.1852893 0.95024562
5.7569737 -1.1455201 0.53263748
4.8896027 -1.2000853 0.97914231
5.908782 -0.94083309 0.60263622
5.9742913 -1.1875277 0.68490517
4.457891 -0.35510689 1.6573086
4.661365 -0.34751949 1.5919679
5.6699309 -0.56831992 0.85034871
3.891701 -0.29531679 1.9417223
4.6946368 0.29043901 1.5773748
5.8739147 -0.4553864 0.7091797
4.1176519 -0.4819403 1.5976292
4.1248894 -0.4953315 1.6565346
5.1301041 -0.39739189 -1.6529475
5.069253 0.85820413 -1.5459394
5.2301245 -0.099264897 -1.4981773
5.1848269 0.1131995 -1.4654806
5.2016611 0.2186636 -1.4159331
5.3269839 -0.61824417 -1.4043503
5.2156086 0.48063809 -1.3088404
5.1832476 0.62751508 -1.246882
2.6209645 1.0816118 0.042409301
2.3664141 0.88213629 0.43207309
2.0622101 0.60552537 1.1739118
2.6414511 0.93085867 0.3732774
3.519798 1.4307828 -0.83707482
3.2914252 1.2133297 -0.28960371
3.1269846 1.1536645 -0.2060474
2.4106598 0.69982278 0.9722352
3.4643948 1.2647969 -0.40289831
3.4627147 1.2581347 -0.4086411
5.1240811 -0.4592801 -2.1091282
2.7865074 0.90980083 0.35704091
2.3866091 0.6655032 1.0692164
2.7518229 0.89695501 0.50079441
3.6159506 1.3015808 -0.48777509
1.8777077 -0.94297802 2.165786
3.7299135 1.3869896 -0.69954932
3.5654948 1.2730275 -0.51199943
3.4717512 1.268768 -0.39720789
3.1558414 1.0670679 0.034771699
3.4935362 -1.1133031 0.40718529
3.2601857 1.0897 -0.0239338
3.5005388 -1.1188167 0.41402099
3.4920075 -1.1140153 0.4266853
4.9982333 0.64392638 -1.756117
3.9722509 1.2183994 -0.36009359
1.885994 0.0529318 2.3719547
3.3543637 0.78536892 0.67853492
2.3627636 0.46320409 1.529369
3.291364 0.8991046 0.46186769
2.1541448 0.7379142 0.9184925
2.6668494 0.95645839 0.33468139
3.4956012 1.2745423 -0.37576711
3.3320363 1.1729541 -0.1745096
5.1984782 -0.097519599 -1.6727724
5.220706 -0.4031789 -1.6715535
2.7541797 0.89414507 0.50580209
5.1735926 -0.1229934 -1.5073067
2.853997 0.95003402 0.43795359
5.18016 -0.068663903 -1.6056842
3.3007402 1.0966243 0.066112101
2.3786726 0.65550852 1.0169816
3.1587155 0.70225698 0.38621819
5.1466727 0.17744941 -1.5632672
5.3079691 -0.1325542 -1.4983954
5.0474782 0.64520699 -1.2470161
5.1630621 0.1104021 -1.470089
3.486933 -1.1035823 0.38562641
3.0849886 0.91209787 0.46651351
3.2495568 0.99887788 0.26614109
3.2678185 0.98854119 0.30044451
3.2799699 0.98981869 0.3075451
4.0610838 1.3259617 -0.57212663
4.3791466 1.4047934 -0.77440739
4.0936527 1.3375086 -0.53268129
3.9883745 1.2270713 -0.35584581
3.9944537 1.2444201 -0.35795531
5.2684193 -0.31244361 -1.4375814
2.4769907 0.4949719 1.3808192
5.0992899 0.91153359 -1.3155347
5.2420826 0.054678801 -1.3067174
3.3276024 0.91553342 0.48715559
5.1451197 0.2434763 -1.3998197
5.3733606 -0.67521721 -1.2494243
5.3297701 -0.4378134 -1.1607579
5.1717572 0.7114743 -1.2104076
5.2106342 0.53220332 -1.1832361
5.1859546 0.056776501 -1.3201978
3.3481836 0.9045074 0.47242799
5.0940695 1.2682885 -1.1042047
5.037086 1.3530099 -1.1591994
3.9607658 1.0827831 0.069037698
4.290421 1.2097044 -0.3521547
5.3142877 -0.77708638 -1.0374981
4.1200781 1.1476587 -0.1167798
4.1125441 1.1357852 -0.1090172
5.3003435 -0.1539859 -1.0545558
2.9641953 0.57616419 1.2337654
4.2857666 1.2199819 -0.3447732
5.0191307 0.88870621 -1.1638999
4.3090677 1.2226206 -0.3314923
4.2892966 1.2155302 -0.3345513
3.3496878 0.79567122 0.69269061
5.1571903 0.90771592 -1.1276681
4.3365059 1.2484266 -0.3057518
3.3545136 0.79816222 0.70923853
2.9715011 0.57701951 1.2291689
2.977577 0.57512921 1.2318661
3.6923263 0.71442747 0.54858512
5.1586189 1.1550223 -1.089834
5.3203006 -0.1536828 -1.0450565
5.0871515 0.47699219 -0.83527261
5.1530328 1.286522 -1.0299795
4.3105311 1.1712002 -0.083477899
4.3755317 1.0852109 -0.085767098
3.587997 0.82478827 0.66672832
5.1245985 1.2746248 -1.0377184
5.3721356 -0.029839501 -0.79439121
4.4052567 1.1086167 -0.056376301
5.206974 -0.1268307 -1.5162687
5.1835141 0.47767171 -1.3106784
5.3349614 -0.43296021 -1.2089938
5.2316904 0.53050768 -1.172821
5.1533465 0.70547241 -1.2158566
5.3367395 -0.66373068 -1.2598555
5.1918101 0.69265538 -1.172326
5.1958871 0.72186238 -1.2023139
5.2681751 0.055906199 -1.2977958
5.2187376 0.70230222 -1.1617128
5.3533292 -0.3555505 -1.1173977
5.1261401 1.0801976 -1.1779505
5.170567 0.96418649 -1.1535699
5.3064089 -0.41980919 -1.2091082
5.2437334 0.5472464 -1.1658288
5.1161156 0.94492012 -1.1742861
5.3277545 -0.35214469 -1.1226851
5.2211466 1.0111902 -1.0098904
5.3281031 -0.1560349 -1.0471003
5.3122435 -0.044160001 -1.064832
5.1445036 1.1500335 -1.0928167
5.1642447 1.2953942 -1.0257326
5.1992302 1.2012986 -0.96364892
5.1754651 1.0094213 -1.0287434
5.3987522 -0.8051911 -1.0062237
3.5692697 0.84116417 0.69178092
3.9679878 0.99874538 0.25707909
2.9690235 0.57052231 1.2221522
2.8090215 0.58533782 1.1929783
4.1403599 1.00564 0.15837111
5.3270664 -0.076577596 -1.0081366
5.1563573 0.98277009 -1.0327581
3.5854268 0.82235128 0.66947198
5.5162644 -0.96625632 -0.84532148
5.4379926 -0.16168401 -0.77689618
5.3399949 0.1108311 -0.92035478
4.4672079 1.0001407 0.1683964
4.024621 0.88716191 0.4892191
5.5543861 -0.93346387 -0.75210339
5.2805328 0.66955572 -0.71946847
5.3287096 0.53694808 -0.76121992
4.3142638 0.97629333 0.33185709
5.3310013 0.67882389 -0.6958226
5.3044996 0.66720438 -0.70848918
4.0220852 0.88437122 0.48655671
4.0211015 0.88219589 0.4977223
5.3342366 1.056006 -0.54642832
3.9093528 0.84279078 0.64986807
5.4649949 -0.28601259 -0.58631259
3.895972 0.83736217 0.63214338
5.5329528 -0.86084187 -0.60572261
3.9091704 0.84762251 0.66269398
5.4745135 -0.25655961 -0.56523579
4.1719122 0.91133279 0.69326252
3.9928012 0.8225947 0.67096537
5.3266292 1.0490884 -0.55217642
4.1118288 0.90795422 0.63562149
5.3392711 1.0536338 -0.54705292
5.3013296 1.0456468 -0.56379032
3.6656051 0.2081798 1.1655066
5.4652691 0.1530509 -0.3973344
4.9232674 1.1080482 -0.0173213
4.5460186 1.0329076 0.2838169
3.5033805 -1.6310291 1.4489067
4.7997627 1.0629359 0.082915902
4.9264259 1.1102163 -0.0189538
5.5828137 -0.3722299 -0.3082006
5.4180555 0.89440078 -0.179612
3.97791 1.0000365 0.25554681
3.5209601 0.5962857 1.1178917
4.5196652 1.0121788 0.56973141
4.4743376 0.95060349 0.3980175
3.8957267 0.74505037 0.87621522
4.4639268 -0.3182897 1.2824959
4.7999191 -1.1701884 0.87511408
3.8701265 -0.51847881 1.8200704
3.901361 -0.45987269 1.8309664
2.5772977 -1.1062468 0.71580529
0.4963707 -0.87378907 2.0462492
1.1275188 0.35425371 1.6384983
0.69388813 0.2116234 1.9697477
1.0240848 -1.6391379 1.9293543
1.969265 0.52288252 1.2818036
0.90040362 -1.2616307 1.9901766
2.2194588 0.55462313 1.2363967
2.8989489 0.70712543 0.90913898
1.5422118 0.36636981 1.6513165
1.1610444 0.2308843 1.9711128
0.55349499 -0.90016222 2.3900595
1.8791418 -1.7770352 1.7510402
1.845523 -1.6491801 1.7661769
1.7624253 -1.657578 1.7549924
1.0726016 0.137026 2.1448336
0.99005741 0.1329004 2.1603377
2.8689234 0.58299488 1.1900773
2.5694194 0.53416479 1.350731
1.9112124 -1.3191315 1.9143907
2.7398398 -1.5704361 1.5720668
2.7461102 -1.5923691 1.5570083
2.7352829 -1.6131727 1.5282968
2.5689721 0.54711068 1.36174
5.8110609 -0.99141198 0.33379561
5.8587847 -1.2029786 0.32503921
5.7656317 -1.2695185 0.4860459
5.8652134 -0.4351142 0.52914548
5.6985393 -1.2418684 0.43256831
5.7869306 -1.47359 0.45896021
5.8412743 -0.43169159 0.51231802
5.7605376 -1.150195 0.53263187
4.8038034 -1.1684474 0.82636237
5.7600069 -1.1083453 0.63403219
5.9217796 -1.4224927 0.55168623
4.8290048 -0.94433552 0.91836172
5.3223796 -0.77022481 0.81473392
5.3406796 -0.78828138 0.83363873
4.0747862 -1.2837405 1.2020628
5.9413619 -0.78773361 0.70443952
5.3223915 -0.5820998 0.90187538
4.8757854 -0.64908648 1.0153561
4.0702963 -1.2779117 1.1863532
4.8033743 -0.34960461 1.1282651
4.7922416 -1.1870936 0.81478941
4.8999958 -1.2172636 0.93066287
5.324975 -0.57983023 0.90064269
4.8624821 -1.3812774 0.98526859
4.8702135 -0.64262211 1.0043368
5.0739775 -0.56202078 0.99856198
4.7994118 -0.62745231 1.0543426
4.8270125 -0.64172578 1.0896666
4.8537588 -0.67379481 1.1669372
1.8433894 -0.2838974 2.1937923
1.7490804 0.0156957 2.2428715
1.8553694 -0.26820719 2.2070398
4.7633634 0.44637769 1.4751233
1.8881991 -0.36221471 2.1307983
1.8582292 -0.1710463 2.1820459
1.8315791 0.1126658 2.2283366
1.8149405 -0.099492997 2.2229357
1.8681012 0.079176903 2.237401
1.829846 0.063634001 2.2203319
1.8534546 -0.31141591 2.1914439
1.8185753 -0.2334981 2.2040763
1.7147449 -0.028125601 2.2486339
1.8416033 -0.053863201 2.2123585
1.8228118 -0.29564899 2.2007928
1.7545567 0.063182198 2.2597508
1.8537657 -0.135563 2.1806669
1.8230249 -0.2239747 2.197963
3.0798256 1.6219429 -1.7256265
2.844712 0.82823151 0.54228121
3.109736 1.6365172 -1.720371
2.8589396 0.68886602 0.85449678
3.1118259 1.43959 -0.95974863
3.4508269 1.0856462 -2.1776793
2.8304951 0.70092821 0.90284508
3.3237817 1.0897025 -0.39534181
3.2761352 0.96992892 0.2166352
3.2652853 1.1670668 -0.30507681
3.2460978 1.0784658 -0.066037901
3.3106072 1.4129348 -0.86726791
3.4412007 0.80215591 0.60103458
3.577687 1.2810243 -0.50205791
3.6644263 1.4547656 -0.9341647
3.5888345 1.1704689 -0.2313949
3.4490762 0.93485862 0.42542979
3.464751 0.93515283 0.42053729
4.9748902 0.0225362 -3.1049669
4.1236434 1.300581 -0.65836591
4.1201568 1.5879964 -1.3004651
5.104619 -0.1301139 -2.6483111
4.2127533 1.348398 -0.62190533
4.2004604 1.0454862 0.2539041
4.9513149 1.0491689 -2.6957352
5.2279239 -0.23922659 -2.1605408
2.6200957 1.3487892 -0.71534061
2.450386 0.94619089 0.26350191
4.0834613 -1.0302167 1.3369335
3.7567842 0.37755251 1.5104114
5.8310361 0.62971783 1.0862699
4.7850475 0.2180814 1.4757659
4.346983 -0.2450545 1.5320807
4.3656139 -0.21322671 1.5284691
4.085197 -0.2789779 1.6000675
5.908936 0.57771617 1.2033767
4.703248 -0.2043556 1.4543868
4.4239378 -0.38566381 1.5400252
4.8056164 -0.37966111 1.5595876
4.8034596 -0.2405459 1.5892763
4.7934904 -0.2134164 1.5137886
4.363265 -0.291237 1.6617811
4.4452066 -0.28553039 1.620153
4.3984566 -0.38764599 1.6156936
4.735568 -0.36458781 1.4816014
4.2072597 0.27242091 1.769991
4.7706795 -0.2432878 1.5283812
4.0477223 -0.3265591 1.721796
4.1228228 -0.49577379 1.6935782
4.089324 -0.3229602 1.6915205
4.6847091 0.32448959 1.6406815
4.3858294 -0.29589251 1.6643437
4.1803613 -0.31605449 1.6856874
4.3417754 0.29178351 1.7608888
4.701045 0.3228848 1.6816225
4.7181616 -0.2622931 1.5882269
4.6047788 0.32066211 1.6801828
4.5380096 -0.27646649 1.6129295
4.7736096 -0.2559495 1.6119004
4.5543323 0.30720431 1.6739309
4.5917354 0.28517959 1.6590823
2.6395509 -1.1116214 0.72548491
2.6399529 -1.1094719 0.72408438
1.1490339 0.22272959 1.9681361
2.747304 -1.6753509 1.541961
2.7703736 -1.6797414 1.5600133
2.7595263 -1.6776452 1.5464061
2.028039 -1.6064428 1.7441608
1.6199484 -1.8086182 1.8245964
1.587633 -1.7994694 1.8076255
1.8840578 -1.7835798 1.7455423
1.0364101 -1.8594301 1.9409864
1.8474586 -1.5897403 1.8613629
1.1974121 0.2169937 2.0273373
1.190806 0.16357049 2.0863388
1.8610455 -1.475329 1.8379242
1.1939301 0.1776931 2.078661
1.0687084 -1.6426272 1.9872704
0.95620501 -1.0350764 2.1209269
0.91870511 -0.97287673 2.1783273
0.88907558 -0.73191768 2.1620362
0.9966802 0.125441 2.2601888
0.88999718 -0.73005342 2.181566
0.88180733 -0.94066018 2.2222922
0.2578114 -1.1630352 2.3436639
0.83636123 -0.84796423 2.2938128
0.1286384 -0.95212501 2.4713991
1.5353535 -0.13317101 2.306284
1.7940671 -0.36736989 2.2006893
1.5446389 -0.31400001 2.2666874
1.7784523 -0.33498171 2.2208002
1.7811081 -0.3671791 2.2051697
1.7838465 -0.2197616 2.2329993
1.4471853 0.042536501 2.3151824
1.5923771 -0.37809351 2.2556334
1.5187917 -0.017974401 2.2983909
1.8513165 -0.28527531 2.2054636
1.4034127 0.0373234 2.2796161
1.4302975 0.058014601 2.3206797
1.6798632 0.084805399 2.2793427
1.5428356 -0.39105639 2.2566922
1.4459383 -0.086439401 2.3359191
2.616725 -1.1169629 0.73942149
3.5014005 -1.5672752 1.2129132
1.4899329 0.34426129 1.6936167
1.1364645 0.29681471 1.7833296
1.1125971 0.33724761 1.7768695
1.3199346 0.29554921 1.798151
1.3934957 0.30152491 1.7954751
0.57436508 0.1763038 2.0463552
1.0951971 0.2346791 1.9103609
0.65840769 0.18511429 1.9977667
1.2942041 0.26606351 1.8636245
1.4091767 0.28363651 1.8405811
0.73682559 0.19363651 2.0061367
1.2961127 0.25703129 1.854413
0.97711748 0.22133879 1.9334806
0.65703982 0.1603681 2.0287905
0.83792019 0.1764259 2.0322394
1.4585364 0.37291199 1.6364588
1.2160966 0.2187795 2.0318053
1.47268 0.2155911 2.1054885
1.8309045 0.4751215 1.4610361
2.1593494 0.55010581 1.297088
1.8972968 -1.2578548 1.9490598
3.4663699 -0.60571003 0.4682602
2.7561529 0.58421981 1.267112
2.9948833 0.64416772 1.1727993
2.6157587 -0.5210529 2.0038435
2.6914618 0.1309769 2.1702504
0.50751871 -0.88546628 2.3697488
0.99461371 -1.5771564 1.8713812
0.97756767 -1.1044317 2.1164863
0.99363363 -1.0945017 2.0986793
1.0166183 -0.57760268 2.3406549
1.0624526 0.15295459 2.1415238
2.4480972 0.93192381 0.25153089
2.6145139 1.2301569 -0.42337629
2.5991015 1.228518 -0.43269691
2.5395336 0.92132682 0.26272321
2.9079936 1.7463027 -2.0268991
2.6426401 1.0477611 0.019938899
2.7751486 1.0829009 -0.089974098
2.6843896 1.2277709 -0.38497189
2.7160096 1.0958173 -0.080394201
2.8617036 1.172456 -0.2185051
2.9941852 0.93056422 -2.2419994
1.9072474 0.54265332 0.26475391
1.9767298 0.72764891 0.2277133
1.8604499 0.77077907 0.36363229
1.9222693 0.85609341 0.52317518
1.9366057 0.85072172 0.50748038
2.1083567 0.85284889 0.47089651
2.0185277 0.85086352 0.46150491
2.0414426 0.83502269 0.43400729
2.6228528 0.83368093 0.55589801
1.925284 0.84840357 0.51664758
2.3192344 0.82726008 0.58447433
2.5022054 0.7905879 0.58642769
2.5161545 0.78131747 0.56705511
1.9995494 0.81571198 0.55980992
1.9728447 0.83549672 0.60967559
2.3144672 0.82582009 0.5920707
2.576683 0.77466083 0.63787621
2.6406887 0.76129961 0.72952849
2.4778714 0.80036807 0.62424082
3.0595582 0.72307253 0.82210958
2.6263685 0.75610143 0.80331188
2.609206 0.7812196 0.80297852
3.0624154 0.72144008 0.81550741
2.9305506 0.68641841 0.8692826
2.2264292 0.7694487 0.84271717
2.0900776 0.66532087 0.75795758
2.926182 0.68849581 0.87737179
2.2196612 0.77089441 0.85263479
2.0491531 0.69651812 0.83935052
3.1688373 0.50508487 0.86976361
2.1659422 0.66553402 0.88288093
3.162931 0.56474578 1.0945861
3.1613464 0.58863503 1.1705793
3.1647265 0.57150209 1.1394302
2.3330631 0.60710639 1.042926
1.9135175 0.56089318 1.0201743
2.9806068 0.61163831 1.0817688
3.0792387 0.58904803 1.1578542
1.95988 0.63259077 1.0681221
3.1561642 0.5984078 1.2301716
2.9727364 0.61115032 1.0787288
2.9695544 0.61244452 1.1012996
3.0768692 0.59459293 1.178561
3.1689384 0.59161389 1.2004069
2.3296299 0.59782177 1.0754175
2.9566407 0.64343518 1.2580371
2.7369459 0.64139313 1.1108875
2.9005117 0.57836848 1.1891632
2.0564559 0.61150157 1.0304389
2.3226881 0.59519219 1.0799745
2.2916994 0.62204641 1.1178517
2.69911 0.4925867 1.302089
1.8833284 0.57091218 1.0731432
2.2743208 0.63305777 1.1581651
1.1632152 0.56483352 1.1692472
2.727195 0.057471801 1.4158014
2.5908923 0.4465766 1.329582
2.623491 0.70259821 0.4902446
5.452219 -1.1534412 0.83077413
2.6089718 1.0060594 0.071207203
2.9553397 1.241591 -0.4185172
2.7127643 1.0920224 -0.084185801
2.7005718 1.0861732 -0.1001616
2.7857544 1.1030451 -0.091641203
3.4639637 1.546571 -1.1264457
3.3523598 1.4514129 -0.85767561
2.7844706 1.0943398 -0.0871218
2.8830655 0.96594697 0.2690379
2.4007459 0.56228268 1.1956952
3.7180188 1.2948841 -0.57144952
3.3031704 0.9873386 0.29368439
4.9282126 1.684625 -1.6440279
5.1285019 1.7441007 -1.6396306
5.3141255 0.1112608 -1.4892507
5.0922389 1.7363956 -1.648453
4.4327178 1.3049332 -0.55991822
3.4434943 0.80087709 0.61334687
5.1831241 1.2777922 -1.4819765
5.1934314 1.1690152 -1.5885708
2.7200677 0.1409452 2.2215083
4.1567426 0.91568178 0.23580509
3.6687429 0.2797471 0.91580331
-0.0018406 0.7287243 -1.4541694
-0.0152188 0.59818578 -1.4091201
-0.0134952 0.56427258 -1.353078
-0.0108618 0.69255811 -1.3435094
-0.0188946 0.69090581 -1.3716978
-0.01911 0.68436873 -1.3506401
-0.0192426 0.55416453 -1.3066425
-0.0231106 0.70017469 -1.3207122
-0.026264399 0.69389659 -1.3228414
-0.020183301 0.5433799 -1.290644
0.188297 0.60844332 -1.4834338
-0.0219616 0.76150888 -1.3192163
-0.0320758 0.54322392 -1.2745774
-0.0240932 0.66309112 -1.2894274
0.0966966 0.56959862 -1.3588642
-0.022943901 0.66252083 -1.2816463
-0.038105499 0.6551106 -1.2300731
-0.0400437 0.5122124 -1.202787
-0.0325399 0.65923113 -1.2246864
-0.029792599 0.63773757 -1.2031145
0.1016744 0.55167133 -1.3106251
-0.0358884 0.62835622 -1.1872948
-0.038943101 0.69476342 -1.1880473
-0.059147101 0.53869063 -1.1513929
-0.059958901 0.48734549 -1.1288645
-0.054648198 0.68555897 -1.1950663
-0.062592797 0.51897907 -1.1065722
-0.0564452 0.4661462 -1.0851274
-0.047290199 0.59389168 -1.0915564
-0.071872503 0.45522961 -1.0762244
-0.0479085 0.58425868 -1.079033
0.1777025 0.52736491 -1.2496885
-0.081326999 0.43686649 -1.0370667
-0.075188003 0.42898721 -0.94109541
0.1163838 0.46332309 -1.10094
-0.0783149 0.52299762 -0.93017161
-0.086599603 0.38595009 -0.85911489
0.4868291 0.60012448 -1.4315432
-0.0517467 0.76816529 -0.97170752
-0.0973785 0.3895463 -0.87024027
-0.051802199 0.76595539 -0.97277713
-0.079948597 0.38116881 -0.86875713
0.0067070001 0.60827428 -1.4607671
4.9299603 -1.2005286 0.91970772
5.0084829 -1.2989558 1.1464999
4.9278126 -0.72000492 1.1966149
4.3453207 0.52945328 1.0354106
3.3057823 -1.5442077 1.1121833
3.779155 -1.47939 1.194157
3.7951412 -1.47905 1.194105
4.7698183 -0.40438029 1.1824796
4.6555767 -0.18611109 1.4119673
4.6706562 -0.33717981 1.3626729
4.645874 -0.3704159 1.6063834
4.0811925 -0.4440248 1.4291193
4.291235 -0.21949691 1.6623877
4.5240436 0.31203419 1.7461531
4.3527222 -0.30027649 1.6663146
4.2483845 0.2696408 1.7650146
4.2807846 0.29988211 1.9606943
4.1537309 0.25538829 1.8141631
1.127744 0.36900261 -0.24269471
1.2932529 0.68940622 -0.097152598
1.3674439 0.88724738 -0.0132652
0.90129548 0.60638601 -1.3710417
0.90605313 0.21475489 -0.1986136
0.89879793 0.7309196 -1.1911213
0.9137882 0.76909149 -1.2987392
0.89701521 0.65360659 -1.542979
1.2815415 0.86550337 -0.050649099
0.91959 0.8664012 -1.4763476
1.0156062 0.20926221 -0.1803837
0.92559552 0.88850588 -1.2536751
0.87151623 0.68957663 -1.0757452
0.89467287 0.87540108 -1.4727005
0.88614142 0.50298113 -1.0961672
0.88440448 0.64647311 -0.98274982
1.1572388 0.64062017 -0.0052381
1.2718606 1.2407455 -0.4786841
0.90412831 0.2147111 -0.20405941
0.93804252 0.88635463 -1.2607362
1.1521724 0.64938289 0.0022130001
0.96034873 0.98951399 -1.2194964
1.1041282 0.69784039 -0.111708
0.96538109 0.98629028 -1.2197306
0.9845494 1.0916308 -1.0918994
1.0039512 1.1948065 -1.132562
0.98139292 1.0908087 -1.1748544
0.96722358 0.98863912 -1.2206571
0.87194479 0.6687904 -0.91097683
0.94578397 0.91955078 -0.94339401
0.85987049 0.60856551 -0.86825842
0.90813482 0.2160069 -0.2088615
0.94160903 0.70829159 -0.16796909
1.0278077 1.4210743 -1.0413849
0.76772529 0.53811288 -0.61464453
0.95306778 1.3355105 -1.2613699
0.77995282 0.32697111 -0.52385497
0.86463392 0.85198307 -0.50636452
0.84356141 0.7431556 -0.5445314
0.76457763 0.60234642 -0.49690181
0.8243717 0.75323302 -0.53848028
0.97708732 1.5014554 -1.2069052
0.93375891 0.83321267 -0.6324383
0.9034996 0.83675718 -0.53848881
0.84894758 0.6352365 -0.60860091
0.82879722 0.74932832 -0.54479551
0.83853418 0.87356973 -0.4033576
0.82557142 0.87728488 -0.39300841
0.92571229 1.1842395 -0.461869
0.83477199 1.5606713 -1.3226476
0.84927863 1.5454203 -1.2912744
0.43046689 1.7082099 -1.6758875
0.44944149 1.6816807 -1.6702363
1.2809561 0.52618831 1.1878188
1.8538971 0.55851662 1.1406546
1.9057901 0.53644788 1.0445232
2.5423501 0.53134048 1.2627549
2.831392 0.4560723 1.3309813
2.3844779 0.54035598 1.3654723
1.8973234 0.54136682 1.2820371
1.9819251 0.53022778 1.463805
4.531342 -0.26955929 1.5196083
5.0660124 0.51592809 1.7266568
2.1255023 0.4659327 1.2273078
2.5417247 0.47608191 1.4972304
1.1548358 0.56743109 1.1791029
2.2595384 0.50876492 1.3364582
1.5307555 0.47262341 1.2233704
1.8596671 0.50921118 1.4500228
1.1518108 0.48674509 1.683694
4.2864141 -0.2357029 1.5955981
2.5418406 0.4858821 1.5280395
1.1022137 0.58295667 1.2578146
1.514644 0.38804221 1.1842574
2.5608759 0.46153671 1.4112978
1.6655185 0.29668921 1.3120931
1.9007292 0.45864859 1.5959669
1.9733784 0.42808199 1.4550025
0.47285259 0.47163329 1.5981965
2.2131269 -1.5856234 1.5293115
1.6782818 0.31863001 1.5181402
2.4710739 0.5110653 1.6746529
1.5361601 0.31988281 1.4981641
0.82192099 0.29049349 1.788322
2.0088649 -1.848294 1.9968094
2.1442256 -0.29080379 2.0068982
1.6582633 0.24246161 1.7812525
0.81286538 0.2946983 1.796777
0.80492198 0.28849721 1.7669907
0.60334212 0.31452721 2.0608451
0.79079908 0.28789461 1.792482
0.67022067 0.29738161 1.947745
2.0803072 -1.7545105 1.8454254
1.5651441 0.26945889 1.9091525
1.9430763 0.60191882 0.1334233
1.2960552 0.6917786 -0.0951626
1.1550665 0.3741782 -0.2959516
1.1297824 0.36978409 -0.24930809
0.91748053 0.66771859 -1.5400952
0.8698743 0.54667997 -1.2225175
1.1251854 0.64842618 0.030019101
1.1277572 0.64440119 0.0266914
1.1321274 0.64850378 0.017564001
0.86323351 0.50960672 -1.0869839
0.97591871 1.1022238 -1.1717069
0.88928401 0.69372678 -1.0846941
1.1218976 0.88725591 -0.070098899
1.0746202 0.69057482 -0.1132773
0.99429941 1.2033353 -1.130695
0.99472708 1.2130694 -1.1302413
0.88299727 1.063158 -1.4135258
0.87258422 0.64615482 -0.97573632
0.825822 0.41707391 -0.90323299
0.81859308 0.3862755 -0.83332968
0.86358881 1.069671 -1.4040239
0.83893758 0.56462377 -0.7573756
0.80751812 0.52393597 -0.6340785
0.88535023 0.82477969 -0.58038521
0.86782771 0.4164663 -0.28719261
0.80218518 0.38662541 -0.28027999
0.91805631 1.0626875 -0.42967889
0.93025589 0.71171468 -0.1525138
0.9325375 0.71113819 -0.1532656
0.9004277 0.95633751 -0.4780328
0.86023808 0.65876949 -0.2079827
1.5518328 1.5791805 -1.349859
1.8677844 1.1170173 -0.136288
2.1010618 0.85695702 0.48192331
1.7389168 0.65885961 -0.027151899
1.5742505 1.4356364 -0.98415881
1.5372725 1.4471279 -0.99103218
1.4426229 1.5201682 -1.1976616
1.369628 1.6555709 -1.4413826
1.4528903 1.3827335 -0.78029412
1.5281863 1.3245301 -0.84785879
1.2488288 1.5678978 -1.3663548
1.1223886 1.7831082 -1.8836812
1.2660627 1.5530118 -1.3694364
1.1430137 1.7698133 -1.8853561
1.9130648 0.78129452 0.78386682
1.1569892 1.7552131 -1.8822483
1.9574534 0.76574492 0.71458399
1.2409391 1.4571729 -1.1951681
1.4180673 0.67887878 -0.093573801
1.2504756 1.5294658 -1.2670931
1.1834711 1.4697658 -1.1529284
1.8965727 0.54158711 1.0520271
0.90037948 0.7322247 -1.193447
1.1661633 1.484215 -1.153859
1.2820266 1.2373353 -0.47896969
0.8872574 0.78249067 -1.2932483
1.8684056 0.55522722 1.1036878
0.91601813 0.77184808 -1.3015583
0.99887598 1.5813302 -1.3449039
1.5485355 1.0303419 0.069819599
0.92186642 0.77201641 -1.3028675
0.84889889 0.66583782 -1.5276985
1.462594 0.85005218 -0.0143076
1.3674415 0.83322263 -0.040527102
1.1635114 1.4742026 -1.1465769
1.060452 1.5422817 -1.3291785
0.94067168 0.87767971 -1.2617228
0.8908487 0.68885839 -1.0888017
0.91196018 0.7599417 -1.3383241
0.90637368 0.68198842 -1.0915136
0.94912988 1.3397856 -1.2632102
0.85207719 1.0750188 -1.4043717
0.79447907 0.97987711 -1.4134979
1.1385999 0.29017359 -0.049079299
0.89899528 1.0584255 -1.4139643
1.0461636 1.426226 -1.0683841
0.80143768 0.4965336 -0.61691469
1.0416951 0.21199539 -0.2111133
1.6691571 0.74174768 0.9700619
0.86824107 0.65703112 -0.88717192
0.98424691 1.592165 -1.3294531
0.86853439 0.75634962 -0.74904752
0.79966408 0.48410061 -0.60896611
0.80350161 0.48066449 -0.61963183
0.80342019 0.47999811 -0.60793668
0.89224881 0.2118424 -0.1927954
0.8009721 0.48748761 -0.62631661
0.8192879 0.52709109 -0.64973432
0.84817523 0.68057561 -0.62615299
0.83548713 0.57405519 -0.52953571
0.82814533 0.55949742 -0.53835708
0.8249681 0.68829232 -0.48844609
0.78655559 0.39225569 -0.2817997
0.81373018 0.68450999 -0.48362321
0.84917682 0.65192437 -0.49443689
0.90690702 1.0640643 -0.4249166
1.0687956 1.5341496 -1.3560481
1.1076421 1.1120934 -0.068906099
0.93274069 1.1667018 -0.33279839
0.91504908 0.28344119 0.1792144
0.4142195 1.6824275 -1.6586564
0.72689039 0.2286416 -0.0213851
1.1610358 0.48808941 1.6953608
0.36981431 1.71171 -1.6556503
0.047504801 0.67033648 -1.6447213
0.1832826 0.64781177 -1.6477798
0.80675012 0.87881982 -0.099529602
0.091018498 0.66883951 -1.6307796
0.40464851 1.70908 -1.6724401
0.0518457 0.67135757 -1.6468487
0.1565344 0.65118438 -1.6400999
0.4241823 1.6962305 -1.6669387
1.0501504 0.55963069 1.3641574
1.3870004 0.51189452 1.3965886
0.0024967999 0.67564362 -1.6175687
0.87339938 0.52247351 1.1411655
0.79207402 0.53874612 1.2221826
0.84572661 0.53266722 1.1733394
1.0020899 0.1229069 1.9407802
0.99335909 0.1389869 1.9397196
1.9750681 0.64389932 0.0010579
0.85634178 0.60888338 -0.8668915
1.2634568 1.2448277 -0.46462369
1.7889014 1.1339875 -0.1858767
1.2648001 1.2504988 -0.46912789
1.9426658 1.005277 0.1133713
0.83546633 0.56786633 -0.75563121
1.3378048 1.2072997 -0.50584269
1.9555198 0.99491811 0.0997945
2.0283751 1.0002706 0.2292967
1.9131517 0.54586709 0.24257161
2.0031288 0.97718692 0.2012798
1.7286973 0.66198891 -0.0192014
1.6693314 0.66915578 -0.041125301
1.9291922 0.53789991 0.2039693
1.7696922 0.64486063 -0.048717201
1.9022743 0.55033088 0.2830399
1.681461 1.0114334 0.080238201
1.9314015 0.53985512 0.25252429
1.6806178 0.82844871 0.020639401
1.907275 0.5479365 0.27224401
1.6832002 0.8307538 0.0213551
0.85541469 0.85551047 -0.50075382
1.6563169 1.0362569 0.1223087
1.855927 0.56851602 0.315395
0.89001971 0.96270633 -0.46495199
1.9737744 0.73662329 0.2364327
1.9441175 0.76520878 0.2808069
0.88262552 0.95430791 -0.46323439
1.5059756 0.6052587 0.037169699
0.76322079 0.69442391 -0.45285901
1.1119651 0.3691901 -0.2261875
1.2085648 0.67917299 -0.044883199
0.93313742 1.1602678 -0.34987769
1.1216325 0.28583109 -0.046603698
1.9294757 0.90049881 0.37223709
1.4542407 0.85224342 -0.0065317
1.5068372 0.60797381 0.022635899
0.91983032 1.1682359 -0.35147271
1.0914181 0.37397921 -0.21146929
0.90059668 1.1832647 -0.31378001
1.5119288 0.60458589 0.016876601
1.2405152 0.69242013 -0.069441199
1.155897 1.0383077 -0.038398702
2.2644441 0.73926002 0.76218712
0.77705818 0.38457611 -0.2599912
1.107329 0.69766229 -0.1130266
1.1117429 0.70019758 -0.1166287
1.3009583 0.63443917 0.0551279
1.0574143 1.0698819 -0.0326044
1.1326162 0.36420059 -0.24505121
1.1054525 0.69850498 -0.1129159
1.5080001 0.60181928 0.041347101
1.0971564 0.37149209 -0.2225659
2.5547097 0.67135042 1.0071057
1.1193851 0.3665382 -0.23115709
1.1243384 1.055548 -0.0060009002
0.92820662 1.121263 -0.39078501
1.2906173 0.63491082 0.061658502
1.0451174 1.0764539 -0.022036999
1.4526229 0.6235463 0.1073103
1.0635842 1.0630128 -0.038917001
2.5268652 0.6847657 1.0726508
1.1339847 0.59924972 0.1548112
2.0457199 0.76506478 0.78237021
0.93153971 0.71102113 -0.151154
1.1975433 0.57813448 0.1065535
1.8091501 0.76973718 0.61685842
1.1302125 0.5975976 0.1579913
2.1059079 0.60674173 1.0060941
0.5429219 -0.045374501 0.3220754
2.5533435 0.47395879 1.4070528
0.51438302 -0.048689701 0.34702671
0.44262409 -0.056782302 0.4106546
0.68075001 -0.0587378 0.25569391
0.54167128 -0.058752 0.3726553
0.52158988 -0.064539202 0.39754781
1.8669693 0.50385988 1.4266605
-0.34122631 -0.0294446 0.26394761
2.1106126 -1.4149179 1.9999968
-0.1196921 -0.040791199 0.16473261
2.2170143 -1.2055112 1.8106101
-1.0224884 1.624773 -3.1591942
-1.0477207 1.6286076 -3.1689284
-1.0868428 1.972096 -3.1176817
-1.028147 1.9335176 -3.0826569
-1.9101487 -0.53639692 -0.1629042
0.9146862 0.6647535 -1.5361487
0.9173336 0.66903418 -1.5371525
0.91575629 0.66637909 -1.5337864
0.80588913 0.67532349 -1.5679601
0.80627269 0.6753391 -1.5673743
0.90828627 0.76225787 -1.481801
0.76239508 0.69660479 -1.5644591
0.9253335 1.0802631 -1.414313
0.92428082 0.76928401 -1.3058681
0.90268898 1.0327839 -1.2857878
0.90202957 1.0322571 -1.2873017
0.90448081 0.7284233 -1.1903238
0.49037221 0.66290838 -1.5905036
0.57579112 0.90746212 -1.5233115
0.4554626 0.69980592 -1.6087992
0.56856519 0.90401709 -1.5274094
0.56060523 0.90747732 -1.5230896
0.82706058 1.5620881 -1.3210876
1.6727593 1.1987908 -0.35368761
1.790342 1.1371236 -0.1847973
1.7941188 1.131722 -0.182493
0.031199699 0.89552009 -1.5588375
0.037996199 0.89422929 -1.5618522
0.033514202 1.0914307 -1.5156084
0.0991522 1.153125 -1.5035293
0.040306401 1.3700132 -1.4290006
1.1131706 0.3874771 -0.2571083
0.9152146 0.66673368 -1.5372113
0.90919501 0.66349697 -1.5446141
0.9096362 0.66455591 -1.543963
0.91598481 0.66594541 -1.5377585
0.90685809 0.63527852 -1.4324334
0.91779941 0.87043053 -1.4761069
0.91906631 0.86844748 -1.4776795
0.91101247 0.82478088 -1.3599834
0.79741412 0.70983392 -1.5545864
0.89209157 0.59049118 -1.3478118
0.89115173 0.83576882 -1.3472251
0.84615421 0.8747949 -1.5095078
0.84077418 0.87614739 -1.5075402
0.91855949 1.071049 -1.4140711
0.88173091 0.59858352 -1.2151283
0.88938308 1.0634767 -1.4168352
0.90290761 0.73169231 -1.1959132
0.95815992 1.3360599 -1.2777282
0.96170038 1.3375034 -1.2800949
0.94792181 1.3427932 -1.263428
1.2941188 1.2359934 -0.47433341
1.0180143 1.37479 -1.0272058
1.4668649 0.62316471 0.1133742
1.4696136 0.85089737 -0.0140615
1.443601 0.85545999 -0.017116601
1.0141542 0.30584431 -0.3551451
1.3201098 0.70375079 -0.083342999
1.3716974 0.88652569 -0.0124576
1.2792609 0.69549161 -0.059706401
1.3443075 0.94475639 0.022613199
1.3130881 1.1175452 -0.15628161
1.2005385 1.1714659 -0.3053636
1.2859555 0.69745213 -0.0799997
0.99728721 0.28593129 -0.30027711
1.3726333 0.96107841 0.0146711
1.1793796 1.1673954 -0.32260451
0.99688292 0.2878738 -0.29946309
1.2591735 1.0167841 0.025255
1.2653486 1.0242403 0.041204002
0.42158011 1.7018523 -1.6713719
1.1518426 0.71045208 -0.1064433
1.2930182 1.0303246 0.023868799
0.7641598 0.42347199 -0.31007129
1.1174015 0.88624418 -0.071888298
0.83885962 0.86665648 -0.13211539
-1.1382608 2.2192543 -3.0165606
-0.86012077 1.8744978 -2.1149735
-1.0885661 1.6603376 -1.6239079
-1.209466 0.18965191 0.0444257
-1.4940867 -0.021564201 -0.0824643
-1.4455298 0.3612211 -0.3714518
-1.5663295 -0.022787999 -0.098205797
-1.4667 0.24260309 -0.0277144
-1.3924326 0.25214711 -0.0464909
0.95330161 1.2293601 -0.5372265
1.1202235 0.88733608 -0.067612402
1.1354064 0.65202838 0.0242914
0.94951719 1.1918116 -0.44521031
1.0294276 1.1682779 -0.30975771
1.1136768 0.70051998 -0.099588297
0.91807193 1.1616193 -0.33621341
1.1135159 0.87961447 -0.078908399
0.79030168 0.2623584 -0.1974196
0.75798208 0.4173218 -0.29197279
1.0643908 1.0700412 -0.034577999
1.1109276 0.88069201 -0.072461098
0.1732197 1.6749023 -1.6442387
0.102245 1.5955727 -1.3592027
0.0159241 1.0969149 -1.5096706
0.1179443 1.3374168 -1.4571255
0.070321098 1.3418316 -1.4523077
-0.018328501 1.5389518 -1.4072487
0.62867802 -0.057459801 0.32727391
-0.2361135 -0.024358399 0.1997295
0.67062271 0.29140899 1.9385337
-1.2424176 1.7140527 -1.5743617
-1.5002812 0.3106091 -0.25313359
0.90883601 0.66601712 -1.5393379
0.8048014 0.67511618 -1.5640435
0.62858582 0.68389672 -1.5852569
0.75297338 0.63757741 -1.4876385
0.6945861 0.8971265 -1.5163585
0.57533741 0.67226058 -1.5965227
0.78016561 0.60560101 -1.4096488
0.77656162 0.60808372 -1.4028485
0.56811363 0.72827291 -1.5909076
0.81202722 0.579678 -1.3252742
0.55915117 0.73135442 -1.5773027
0.55198139 0.83066201 -1.5391003
0.55883777 0.8209129 -1.5612829
0.65537381 0.59710169 -1.3765182
0.42413491 0.74068612 -1.5978177
0.53561461 0.62700123 -1.4689322
0.4163782 0.83813977 -1.5624727
0.56437129 0.6006965 -1.3957617
0.4660022 0.99757463 -1.5062646
0.50283313 0.60781431 -1.4144472
0.25432691 0.689879 -1.6438253
0.44976559 0.60683978 -1.4299958
0.45271569 0.60127538 -1.4404701
0.67219472 0.50176662 -1.1306376
0.024253201 0.98328942 -1.5526571
0.0175355 0.9861688 -1.5466342
0.044114701 1.0873436 -1.5185602
1.1438248 0.64654762 -0.034941901
-0.3399609 1.4853288 -1.1657176
-0.326253 1.4712908 -1.1743548
-0.59074092 1.5512152 -1.374024
-0.32002449 1.467204 -1.1822021
-1.0369426 1.6338495 -1.624283
-1.0663 1.6594326 -1.6334121
-0.27461001 -0.035329401 0.26499081
-1.5033066 0.54005051 -0.4659816
-1.3980044 0.32436481 -0.29539919
0.89799732 0.67005289 -1.5124363
0.79848897 0.7087853 -1.5571328
0.84589791 0.877056 -1.5118065
0.78888482 0.69913828 -1.563
0.67295122 0.67981547 -1.5866759
0.67294627 0.68082923 -1.5858903
0.90322077 0.82656687 -1.3443037
0.72754878 0.889759 -1.5155635
0.5824514 0.68745279 -1.6043684
0.61190772 0.82214141 -1.5459443
0.61062741 0.82290882 -1.5420145
0.49852559 0.66084361 -1.592502
0.48868179 0.93015951 -1.53721
0.4149459 0.82892299 -1.5718514
0.6831398 0.55411088 -1.2771409
0.3128536 0.67969418 -1.6512027
0.0315996 0.89199227 -1.5845355
0.63347518 0.4343937 -0.95509541
0.050461601 0.78587538 -1.602725
0.0403216 0.89018172 -1.5901917
0.0199591 1.0866272 -1.5105382
0.99624562 0.29593641 -0.3035118
0.96237749 0.3027654 -0.30754659
0.87491328 0.4159368 -0.26525319
1.1241689 0.3627097 -0.21444491
0.063763 1.5587653 -1.3709087
1.1559113 0.70993322 -0.1145763
1.2953216 0.63460219 0.046649199
1.1460314 1.0920326 -0.099730298
1.1271441 0.64632821 0.032650098
1.1350458 0.64559168 0.0155614
1.1185087 0.87203461 -0.098575197
-0.58840579 1.5619968 -1.4063489
0.65718782 -0.0039233998 0.1462017
0.63259912 -0.0439643 0.2871941
0.61520338 -0.042791799 0.29757929
0.63389242 -0.040036399 0.2815516
-1.0689936 1.6631055 -1.633098
-0.18214311 -0.0024259 0.1018843
1.0754225 0.54465139 1.3618706
0.98865747 0.2818135 2.0637474
0.98832792 0.2839672 2.023448
1.0035284 0.28245419 2.0014093
-1.4826294 0.3323209 -0.41653869
-3.503011 0.1576025 -1.9002743
0.65595472 -0.0184064 0.1636916
-0.52299649 1.4930636 -1.2344291
0.63423699 -0.044302899 0.28015411
-1.0672212 1.658921 -1.6318161
-0.5326848 1.4977561 -1.2228521
-0.53416163 1.4977905 -1.2223448
-1.3489473 1.6385127 -1.5940588
-0.28777799 -0.038833499 0.2817865
-0.27737069 -0.033930998 0.26920891
-1.3400884 0.2286786 -0.074552998
-1.4782084 -0.0275988 -0.1058653
-3.2723532 -0.19808251 -1.8129902
-3.3634443 -0.2066039 -1.7923125
-3.1954355 -0.178637 -1.8113316
-1.890128 -0.43200281 -0.41767281
-1.4042625 0.2039043 0.098570503
-3.0094025 1.3796569 -1.0733217
-2.0303726 -0.68835318 -0.45211399
-2.1386297 -0.92301738 -0.54720283
-2.1211355 -0.9100225 -0.5634281
-1.4272524 -0.082759902 -0.0462345
-2.0316978 -0.68180579 -0.45284441
-1.3630868 0.32665741 -0.3484914
-1.5449321 -0.0061157998 -0.0910796
-2.0343893 0.98953062 -0.83631098
-3.5253043 -0.2089041 -1.7688212
-1.8256621 -0.54052448 -0.14379419
-3.2220192 0.25048071 -1.45669
-1.5586662 -0.040926099 -0.034864198
-2.0003774 -0.67786759 -0.48953339
-1.605186 -0.14460529 0.1880977
-3.2755191 0.24309281 -1.4441987
-3.3300817 0.1499836 -1.4708866
-3.1286383 0.50451362 -1.3844565
-2.0606689 -0.8899647 -0.58805323
0.66993248 0.65994072 -1.5777543
0.60362881 0.6591717 -1.5793529
0.69910473 0.89388013 -1.5257155
0.71572518 0.63891852 -1.4775193
0.58147281 0.66105872 -1.5886412
0.73346472 0.89212519 -1.5064563
0.57634127 0.66038978 -1.5674907
0.76930791 0.61123687 -1.442048
0.60153109 0.83822548 -1.4957101
0.54685181 0.79737449 -1.5381216
0.38977841 0.659154 -1.5990758
0.42209351 0.66551012 -1.601943
0.59465033 0.62851691 -1.476878
0.56632131 0.63100839 -1.4934963
0.72836298 0.66851068 -1.575627
0.70312512 0.67689919 -1.5888797
0.77061272 0.63789147 -1.5153075
0.61975569 0.68517399 -1.5722823
0.57025182 0.69396788 -1.5943362
0.57241571 0.68853861 -1.5935832
0.55288762 0.68763858 -1.580466
0.57940608 0.66545242 -1.5792447
0.55558842 0.68727702 -1.5876768
0.6163519 0.82825369 -1.5276589
0.77393019 0.61108297 -1.4103841
0.49081129 0.66606998 -1.5927511
0.4515774 0.70234263 -1.6134877
0.40421861 0.66779977 -1.6141559
0.40189731 0.66469932 -1.6113439
0.59712589 0.62659281 -1.4754153
0.39459869 0.6637013 -1.5951955
0.43273821 0.83122241 -1.5817974
0.37712181 0.66232622 -1.6098754
0.55527318 0.622217 -1.4582052
0.53429419 0.62408799 -1.4675291
0.30609921 0.66501302 -1.6169813
0.53626019 0.62578619 -1.4699184
0.3009946 0.82640529 -1.594203
0.44986019 0.60812962 -1.4376646
0.25211951 0.69033509 -1.6524971
0.2351371 0.72248578 -1.6325177
0.22223701 0.66767907 -1.635224
0.45095089 0.60715061 -1.4285438
0.36509129 0.61388242 -1.4770167
0.35369921 0.61015248 -1.4449768
0.35475561 0.61142498 -1.4513894
0.2286766 0.90443188 -1.5656041
0.2418761 0.95072389 -1.5588163
0.61790252 0.51529813 -1.1699773
0.61728108 0.51494861 -1.1656736
0.041050099 1.0963652 -1.4954729
0.2998175 0.54565448 -1.2831222
0.30611229 0.54853499 -1.2985946
0.13867091 0.50832731 -1.187524
0.48581171 0.3899709 -0.85714978
0.3680712 0.40031451 -0.88615012
0.37729329 0.40344509 -0.91568762
0.36615121 0.40117511 -0.88775259
-1.4850783 0.2323342 0.0667478
-3.3302512 0.25088459 -1.4166205
-2.1600487 1.1597189 -0.43095839
-3.3438387 0.51742059 -1.3582522
-1.3263247 0.22465789 -0.081532598
-1.4738704 -0.023614001 -0.1198228
-1.3335344 0.2257625 -0.41299731
-2.7114782 0.711694 -0.58388889
-2.681376 1.0547346 -0.46864691
0.29888031 0.68097258 -1.6446389
0.34926939 0.68289733 -1.6279339
0.53602988 0.62526768 -1.4881839
0.0198151 0.60567498 -1.4473701
-0.0089865997 0.56835061 -1.3549836
-0.0080132 0.5689292 -1.3585182
0.2201234 0.51255482 -1.1956276
0.4010357 0.50616068 -1.1702896
0.40193391 0.50761157 -1.1699337
-0.0365576 0.51369208 -1.2061445
-0.036773 0.51568907 -1.2151475
0.26292771 0.4611837 -1.0774986
0.37321141 0.39647371 -0.87629098
0.4839344 0.383255 -0.8472541
0.4790011 0.38085061 -0.86738938
0.13299809 0.2901949 -0.6946938
-1.2559595 0.89597982 -0.39405251
-1.2523581 0.90148598 -0.40453219
-1.2458851 0.90539348 -0.41302761
-1.3990051 0.61484152 -0.3921856
-1.5816735 0.3481819 -0.30298501
-1.2568321 0.89335471 -0.40071571
-1.2579567 0.87357861 -0.3137778
-1.0253103 1.0187434 -0.2311652
0.61245382 -0.048323199 0.1981966
0.59472227 -0.0261693 0.1525667
-1.3502793 0.48761609 -0.1749555
-0.2350086 -0.0103045 0.1648891
-1.8519118 -0.57752413 -0.1857837
-1.4645127 -0.023890899 -0.1299828
0.72979712 0.88963151 -1.5271935
0.49104261 0.66469091 -1.5926996
0.3993732 0.66484362 -1.5965112
0.39963499 0.66325241 -1.6121747
0.48874301 0.92926723 -1.5434464
0.57484978 0.63785619 -1.4680951
0.59407473 0.62541729 -1.4735049
0.2210784 0.66519612 -1.6317797
0.6553725 0.59080261 -1.4069148
0.1938035 0.66719592 -1.6362902
0.59497482 0.62405229 -1.4631338
0.53485572 0.62277043 -1.4834232
0.51192772 0.60854661 -1.4231628
0.0242416 0.67855018 -1.6406844
0.0226725 0.68159533 -1.6381768
0.0226472 0.68306649 -1.6443839
0.026447101 0.67505437 -1.6317296
0.45932829 0.60364479 -1.4197176
0.45433289 0.60672921 -1.4255112
0.4514139 0.6097697 -1.4168845
0.4496704 0.60685498 -1.4486554
0.1996832 0.61585909 -1.4758351
0.036061 0.91037518 -1.5692422
0.35385019 0.60975528 -1.4724935
0.28856239 0.61244828 -1.4589745
0.093180798 0.64224952 -1.5423652
0.28794259 0.61107707 -1.4532312
0.1991612 0.61426133 -1.4720173
0.1667268 0.61107707 -1.4627883
0.40555239 0.82573521 -1.5732563
0.47496429 0.91643971 -1.5227979
0.31120291 0.66655588 -1.6196483
0.4571172 0.83496332 -1.5566896
0.47395599 0.63126278 -1.4982258
0.4150354 0.63422751 -1.5193671
0.2355026 0.65982282 -1.6157939
0.2276849 0.6669699 -1.641277
0.4726069 0.63086379 -1.4883139
0.2433373 0.66554242 -1.6239737
0.45972261 0.63456792 -1.4934578
0.56113952 0.58762711 -1.3733231
0.41201979 0.63091052 -1.5015079
0.50913709 0.60992199 -1.4581684
0.45622551 0.60386002 -1.4252443
0.27592039 0.80017281 -1.5863303
0.35543469 0.61160392 -1.4587629
0.1070176 0.65625387 -1.6013461
0.1397797 0.89588922 -1.5874505
0.0318381 0.78691959 -1.6186824
0.038409699 0.91321361 -1.5781986
0.30653721 0.5488565 -1.2883824
0.63579267 0.43642271 -0.99178559
0.4841615 0.38371491 -0.85223627
-1.0305514 1.6448537 -1.6499425
-0.2876462 1.4392469 -1.1336809
0.15454429 0.2925933 -0.65851831
-0.22914989 -0.0001705 0.1224199
-0.2342858 -0.014442 0.1901325
-1.139781 1.1552391 -0.462767
-1.1317463 1.1503187 -0.48368809
-1.248331 1.1815741 -0.33545369
-1.144815 1.154109 -0.45388639
-1.1576552 1.1591814 -0.45102969
-0.2301418 -0.0137366 0.17580269
-1.1184614 1.1379546 -0.50611812
-1.1564779 1.1575291 -0.45206621
-1.5679694 0.081892103 -0.27357689
-1.2621948 0.2716856 -0.22146089
-1.177588 0.4036774 -0.19834439
-1.4743114 -0.019469701 -0.1264468
-1.3070115 0.2261247 -0.1154512
-2.2829947 0.79098278 -0.0964173
-2.3342071 1.1957577 -0.30634439
-2.5305898 0.46983609 -0.020972701
-3.1213655 1.0745718 -0.25913459
-0.0044669998 0.60201228 -1.4201577
0.0189681 0.56705731 -1.3500022
0.2216676 0.5118295 -1.205137
0.64098108 0.4406617 -0.9846499
0.48498949 0.3841916 -0.83580953
0.3338621 0.38808471 -0.90095609
0.95763612 0.31393191 -0.34032899
0.96556509 0.28888151 -0.31385231
0.63280308 -0.058952998 0.2852264
-1.5191348 0.631015 -0.23071259
-1.0489354 1.0301682 -0.21012659
-1.8921596 -0.38336349 -0.53847319
-1.3791641 0.59162158 -0.40359589
-1.5002987 0.35468701 -0.3940486
-1.1083418 0.7743845 -0.27866301
-1.2117977 0.85581362 -0.37943771
-1.1157703 0.77372438 -0.27966821
-1.3892627 0.60451639 -0.33877161
-1.4610213 0.38844779 -0.43599191
-1.1580086 0.78332818 -0.2016678
-1.0357531 1.0222005 -0.21754991
-1.1375148 0.78988868 -0.2397515
-1.6423383 0.34423351 -0.2261788
-1.173043 0.78597772 -0.181485
-1.0534947 1.0250964 -0.2182533
-1.1295328 0.77874953 -0.25044021
-1.0342302 1.0242528 -0.23975299
-0.2330613 -0.0074443002 0.1477993
-2.8951483 1.2993968 -0.7677685
-1.0866923 0.6387201 -0.023915101
-1.7298448 -0.5060147 -0.2429052
-1.2957752 0.24908841 -0.15494341
-0.94878352 0.89975739 0.097557001
-3.1362486 0.92818493 -0.67192823
-1.0923575 0.68979013 0.047915101
-0.9534874 0.89633417 0.073671199
-1.1016921 0.71131361 0.1194842
-1.3082505 0.4069719 0.038177401
-1.219251 0.84122252 -0.2880353
-1.6827704 -0.46988761 -0.31345481
-1.0461376 0.70573533 0.0056183999
-0.98434043 0.91941231 0.1379661
-1.0489275 0.62291551 0.25606129
-1.0524503 0.62118173 0.2420142
-1.207451 0.72524148 0.2352297
-1.6596349 -0.19970571 0.19932111
-1.0355188 0.65252078 0.30390581
-1.1144696 0.6514731 0.42629531
-2.897788 0.98164427 -0.1599091
-2.3582792 0.81198019 0.35931081
-2.5157411 -0.81348592 0.34746239
-2.8584843 -1.0011829 0.69623917
-2.631412 0.1741538 0.51348191
-0.0079819001 0.58208352 -1.3824704
0.1717986 0.55786771 -1.3307418
0.1688229 0.5264746 -1.2537252
-0.025819801 0.54111981 -1.2818357
0.13706 0.4879677 -1.1504626
0.2640276 0.46225539 -1.0595182
0.1782447 0.39550141 -0.90525252
0.1803894 0.39560649 -0.90561903
0.1537122 0.35395369 -0.80490369
0.3027128 0.29906899 -0.64262593
0.30000579 0.29748499 -0.64202511
-0.0249843 0.2306913 -0.4821474
-1.4132044 0.85319459 -0.31062019
-1.3570318 0.72126889 -0.45494771
-1.8524448 -0.42761379 -0.44518581
-1.88727 -0.62407541 -0.60198188
-1.3723226 0.60408223 -0.4296017
-1.664901 -0.15017579 -0.53220868
-0.37128469 1.0327119 -0.0795452
-1.5763673 0.0247203 -0.36845049
-0.37486091 1.0383039 -0.074354798
-1.2830898 0.51420403 -0.28986999
-1.2834351 0.56692028 -0.26003641
-1.3079572 0.52082562 -0.25996491
-1.5012904 0.3240481 -0.123077
-1.0615978 1.0144594 -0.2210356
-1.1783293 0.85129827 -0.26178259
-1.7770972 -0.50708348 -0.1929978
-1.9229374 -0.78178108 -0.26872551
-1.9407957 -0.79160959 -0.25789469
-1.0435015 0.67997229 -0.1626243
-1.7880412 -0.53520089 -0.21026319
-0.2281428 0.022689801 0.0511107
-1.0807958 0.68212748 0.0103998
-1.3232496 0.2307073 -0.094698101
-1.2319105 0.279228 -0.1236976
-0.9435159 0.89695078 0.084426902
-1.1704774 0.41246989 0.019406101
-1.1505401 0.40387201 -0.0068076001
-1.0578706 0.6497727 0.090564102
-2.6654906 0.3927483 0.3408905
-2.743475 -0.1562655 0.53047192
-2.7521842 0.4106198 0.68829632
-1.2411073 0.47626141 1.3765397
-2.3983989 -1.1005884 1.2260869
-2.3620353 -0.7700879 1.2845241
1.9009975 -1.7546104 1.7374078
1.9837246 -1.8420824 1.9342306
0.077139698 0.6180023 -1.4933114
0.078181997 0.62070757 -1.4911743
0.0108311 0.61800969 -1.4791243
0.1048309 0.61712682 -1.487996
0.080370501 0.60239452 -1.4547889
-0.0029187 0.59979808 -1.4208223
0.079328597 0.60190338 -1.4543201
0.20379101 0.61476499 -1.4805955
0.1003357 0.58280349 -1.395878
0.2395803 0.59606183 -1.4282101
-0.0052280999 0.68802738 -1.3485483
0.1405614 0.56773281 -1.3622963
0.17618319 0.55821341 -1.3283336
-0.0231982 0.66236031 -1.2863775
-0.0282472 0.68617821 -1.2869735
0.1222889 0.53648192 -1.2912679
0.0376403 0.52334118 -1.2510254
-0.035315599 0.63391912 -1.2023507
-0.0244436 0.6392172 -1.2177244
-0.0259482 0.63862193 -1.2190366
0.32138371 0.56177902 -1.3158698
0.31612629 0.55921048 -1.3181909
0.19745719 0.54158241 -1.285749
0.2408679 0.52685922 -1.2457027
0.2346599 0.52682829 -1.2512308
0.2360495 0.52666253 -1.2468718
-0.048542999 0.48352879 -1.1269461
-0.030354301 0.48620301 -1.1038742
0.30441359 0.53059638 -1.2426099
-0.0543494 0.59788573 -1.1073684
-0.059388999 0.62942803 -1.1090952
-0.056765199 0.59741777 -1.1035064
-0.054205399 0.46367291 -1.0698274
0.29877269 0.50214088 -1.1793094
-0.060285199 0.4297258 -0.96462733
-0.042758301 0.76779312 -0.97225147
-0.080115899 0.3818942 -0.87035418
-0.062864102 0.71340191 -0.83443111
-0.072627902 0.709584 -0.82548702
-0.1132157 0.38917571 -0.81257713
-0.087828897 0.67559069 -0.70974839
0.14111111 0.28225759 -0.60713691
-0.2111059 0.4075017 0.1989377
-0.2215534 0.65701473 0.35258669
-0.20843931 0.57017177 0.3948139
-0.2520878 0.71214378 0.41509041
-0.243918 0.72665942 0.39861879
-1.0947644 0.73281652 0.037417799
-1.1644605 0.40517831 0.053835001
-1.7682002 -0.23013 0.3318533
-1.108354 0.73083818 0.0647071
-1.1179914 0.6645602 0.29665801
-0.92693567 0.81803727 0.4097425
-1.2372645 0.40615851 0.2009127
-1.2096802 0.36264989 0.1029755
-0.9192605 0.81351602 0.36024109
-0.91351008 0.82988203 0.40784451
-0.92583132 0.83307898 0.44660011
-0.92345703 0.82477361 0.42706469
-2.8331699 0.8133508 0.26491201
-2.9108033 0.42896059 0.41410831
-2.7913153 0.80205971 0.2215189
-2.6461895 0.1708685 0.52832878
-2.7767918 -0.92958093 0.62553829
-2.6946235 0.77048218 0.34926769
-2.7082937 -0.60554498 0.81500548
-2.6662414 0.17230859 0.56513619
-2.4993734 -0.52278709 0.58554518
-2.7171886 0.41268581 0.65358639
-1.2079823 0.46673751 1.3172562
1.9624776 -0.31720951 2.3846264
1.881497 -1.4670981 1.8879226
-0.0065576001 0.59223562 -1.4107087
-0.0092853997 0.58310282 -1.3834012
-0.0137158 0.58213443 -1.392742
-0.01545 0.57424623 -1.374115
0.051487401 0.57325131 -1.3725957
-0.018490501 0.56005448 -1.3120868
-0.0039614001 0.5716576 -1.2627802
-0.022118799 0.55277348 -1.3089672
-0.017811701 0.54521823 -1.2991093
0.238598 0.52598268 -1.2459738
0.042345699 0.52294821 -1.2497921
0.0370932 0.51631969 -1.2244269
-0.019426599 0.52125061 -1.1306344
0.075547598 0.49100801 -1.1529931
0.2242375 0.48369569 -1.1379009
-0.0474534 0.4802261 -1.1233536
0.025227999 0.47957331 -1.0904859
0.021064701 0.47326899 -1.1178405
-0.070937298 0.43158361 -1.0080225
0.061956599 0.41526571 -0.96914881
-0.074721098 0.4148902 -0.95312762
-0.081157804 0.53345972 -0.92520779
0.1995175 0.3806805 -0.88061911
-0.1020005 0.3519282 -0.79550022
0.1496719 0.34789041 -0.80782902
0.147764 0.3474642 -0.80964988
0.1315081 0.282873 -0.63241482
-0.1246445 0.26059139 -0.53858769
-1.3853006 0.5925287 -0.41103491
-0.023080099 0.231362 -0.47104791
-1.6861352 0.65829408 0.079752803
-1.2660416 0.50847518 -0.32782859
-1.2340678 0.82939112 -0.2188908
-1.0279758 1.0210685 -0.22475301
-1.1906242 0.79323602 -0.1528361
-1.5417951 -0.054175202 -0.13829809
-1.4452852 0.093301699 0.0531925
-0.3650707 1.0396448 -0.086259604
-0.37303489 1.0344203 -0.086230502
-1.3244653 0.2174969 -0.081986099
-1.3418056 0.17001019 -0.126984
-1.0613925 0.67066598 0.097441897
-0.99607217 0.93072122 0.17921551
-1.2236136 0.40434659 0.1762715
-1.1980717 0.40359801 0.1317582
-1.0418528 0.55184811 0.1246978
-0.257099 0.79547322 0.4022904
-1.0320482 0.63570338 0.28442541
-1.0417199 0.63892972 0.30756029
-0.2043303 0.57043731 0.4137446
-0.76864022 0.79207641 0.4122397
1.0596619 -0.38111719 2.1638832
-2.393697 -1.1008186 1.2144696
-1.1268185 0.4404645 1.3759965
-1.1011721 0.43987539 1.257583
-1.2014147 0.47224629 1.2279164
-1.1447601 0.45513201 1.3155088
-1.0839876 0.39482251 1.6666178
-0.0061837998 0.59244722 -1.4108067
